# .PCD v0.7 - Point Cloud Data file format
VERSION 0.7
FIELDS x y z
SIZE 4 4 4
TYPE F F F
COUNT 1 1 1
WIDTH 576
HEIGHT 1
VIEWPOINT 0 0 0 1 0 0 0
POINTS 576
DATA ascii
0.2891267949 -0.1973493045 0.4090087839
0.4801727496 -0.05665181361 0.3569751397
0.1871721097 0.2950981735 0.03556218316
-0.4315383826 -0.1805474882 -0.158180234
-0.1226949973 0.1929572739 -0.03094607381
-0.4178238166 0.07201398753 -0.1720958186
-0.5202343535 0.03317766348 -0.4135022306
-0.05218449465 -0.6415188863 0.1078272596
0.4554493264 0.1125908203 0.123931241
0.3183800315 0.2689685452 0.1679852045
0.532650665 0.1149670215 0.2499977621
0.4529697768 0.2328102664 0.2317143414
-0.1322865179 -0.1812707107 -0.09769352207
-0.1445650674 -0.2583357588 -0.06689266507
-0.06478620377 -0.6228821475 -0.02735392417
-0.2135950906 -0.2852925554 0.0207451932
-0.225402627 0.1443790886 -0.2609124646
0.1273647547 0.1329266409 -0.09531272469
-0.03195254873 0.08065917901 -0.1362485323
-0.5250818916 -0.01552438367 -0.4060450906
0.3230336215 -0.2124548045 0.4031870444
0.4411338235 0.1466319505 0.3690068154
0.1916151118 -0.4865448981 0.1763797382
-0.3542894082 -0.05118105351 -0.08509377384
-0.1863258768 -0.2163400964 -0.1102448267
-0.02809806272 0.1380770552 0.1267631295
0.08041132232 0.1899595294 0.1756724917
-0.1189584845 0.4155196865 -0.3866226346
-0.3679434938 -0.04208163905 -0.08341074209
-0.394208018 -0.1933960509 -0.2155939225
0.3857204734 -0.1237131902 0.4541791995
-0.05273306182 0.3042335003 -0.09117844582
-0.3443494316 -0.08223799741 -0.1529823599
-0.3254659946 -0.3116839376 -0.1151274939
0.4571453862 0.1572210799 0.1360378213
-0.02469738423 0.2250620176 0.01793388197
0.3874177532 -0.01378738895 0.4397719264
-0.1217363364 -0.774051014 0.03198269205
-0.177714314 -0.1583346869 -0.1215268494
-0.05350315857 -0.183936312 -0.04458765732
0.311826549 0.08214314363 0.01578980472
-0.4827771705 -0.3321131177 -0.1927240308
-0.6219509654 0.05822282847 -0.3767825936
0.5330573649 0.1297220273 0.2760296047
0.4785000568 0.1930767054 0.3236338519
-0.1756410364 0.08098437992 0.03262091212
0.04255401301 -0.09621343841 0.2904197637
0.4624395935 0.2017464879 0.3389244446
-0.40236747 0.03246317655 -0.1150161515
-0.2891764043 -0.08143285684 -0.1534995289
0.2491665628 -0.3509327816 0.2934582589
-0.5200004076 0.3228498211 -0.4827621381
-0.3865131758 -0.04335000092 -0.2710214314
-0.6120165823 -0.3503842468 -0.3966146578
-0.406157139 -0.3266854409 -0.1792922815
-0.01206956264 0.3367679434 -0.1114101913
-0.5554602732 -0.2995128389 -0.4020538959
0.2132057632 -0.09442174528 0.06307033728
0.09753110276 -0.6133979682 0.06976544755
-0.1851576676 0.187471203 -0.04577347154
0.003118985361 0.03924575646 -0.09231821272
0.106946015 0.305978457 -0.04793656159
0.3843428666 0.2096378608 0.4209375374
-0.6619235465 -0.2802208592 -0.3884812703
0.053775529 -0.6117401965 0.1515131394
0.3187646399 -0.1523879783 0.4566627859
0.4145457577 -0.1112015202 0.4257103519
0.4699610614 0.1061601624 0.1481982907
0.07809389909 -0.388527521 0.04272745637
-0.4155407696 -0.2291128079 -0.07389424887
-0.2078884688 0.001330285824 -0.1724968219
0.4702049549 0.02952289149 0.1799956847
-0.4527010252 0.02806130682 -0.1511786689
0.03015639797 0.1938082982 0.1208715148
0.3859939857 -0.2541656103 0.1929477804
-0.6173971139 -0.02407074228 -0.4689480987
-0.2492864122 0.2598134399 -0.2433378282
-0.1717433359 -0.1449523661 0.1315853705
0.04020518582 -0.3767304531 0.05178678317
0.5097854401 0.1121979468 0.3025755024
-0.05970942282 -0.3138923603 0.1240907452
-0.2127718031 -0.1247853353 -0.1259536681
-0.3054801445 0.2779309667 -0.3351858529
-0.02187856353 -0.6254805565 0.1316847464
-0.3012462949 0.278300068 -0.2672841232
-0.04672229683 -0.09734137629 -0.0661581309
-0.3704813756 0.3088337484 -0.3896579218
-0.4682871482 0.3481617083 -0.4961495883
-0.05726725497 -0.616175069 0.1031993791
-0.516858986 -0.05110699526 -0.2522462725
-0.4543172574 0.217237211 -0.4347334062
-0.02092610906 0.230670743 0.01465459471
-0.4327970565 -0.1933859806 -0.1094916854
-0.08839481503 0.256176804 -0.2234722111
0.4786257285 -0.08187255768 0.2763953198
-0.4433854139 -0.2856836816 -0.2844211842
0.289070579 0.02757256346 0.5058729512
-0.2907076507 -0.1552447425 -0.1167962573
-0.550312479 -0.2385886542 -0.3647753961
0.3233034092 -0.3378694255 0.1571584686
-0.1284010835 0.4710607685 -0.4183218868
0.262114188 -0.07264118437 0.07846733135
0.2678152225 0.2643311966 0.2138854134
-0.5476052248 0.02526552019 -0.4499283507
-0.4948655451 -0.06196961146 -0.2397611324
-0.4879870281 -0.2242802852 -0.1559244343
0.05109469501 0.2071184587 0.1250041867
0.1064705113 0.253805337 0.1143390309
-0.2274752806 0.08273198836 -0.1248452236
0.01673666799 -0.3350059922 0.2127904152
-0.1550302334 0.483424131 -0.4688364296
0.4417822992 -0.1598756598 0.2910126663
0.1076911122 0.2755883306 0.07753649939
-0.125354847 0.1187591946 0.05609103978
0.4686030027 -0.1272287458 0.3783576481
-0.6667932363 0.01511102714 -0.4090428819
-0.4871005987 -0.3364953777 -0.2091142594
-0.0479485372 0.1038075191 -0.1535335276
-0.415773484 -0.1804471073 -0.1890182975
-0.4373293751 0.2181880739 -0.3617358448
0.3421249481 -0.09533492924 0.4905331753
0.3718379278 0.2444022314 0.1531845549
-0.4458373336 -0.2339556954 -0.2837367656
0.2998518915 -0.08639672398 0.4939521162
-0.08484454044 0.2415506127 -0.1848982659
0.3469993333 0.1709198869 0.4631525732
-0.2026673582 -0.119129709 0.1062274501
-0.219381542 0.1160999462 -0.05577921729
-0.201440183 -0.2865284789 -0.05678920961
-0.5634819631 -0.3499722975 -0.3027785467
0.4862548099 0.1476006 0.3220903186
-0.2209553309 0.1283523194 -0.06000701102
0.01244222896 -0.3261191677 0.01497571188
0.006799263962 -0.729172319 -0.01499607113
-0.08608717416 0.4170362568 -0.2279801167
-0.1432975788 0.4293646108 -0.260026308
0.3423667206 -0.2176835103 0.3884541538
-0.04775915026 0.3917578924 -0.2873689965
0.04737920326 -0.6059793828 0.1539543567
-0.3172472717 0.2419777802 -0.1955034685
-0.01597883713 -0.5941412943 -0.01706905185
-0.1484100598 0.485711805 -0.4581622395
0.2005087985 0.2791532294 0.1267328549
0.4467560672 0.07592505432 0.1228698135
0.3442304712 -0.1927919911 0.1056316796
0.03390767589 -0.2746939642 0.2581451019
-0.2849836768 0.0320026595 -0.02235943708
-0.1510007842 -0.2870328837 -0.02900757227
0.1809089072 0.1461882652 0.3359028343
-0.4842316813 0.2676927371 -0.4151436714
-0.4857044998 0.3343844776 -0.4729355853
0.1507325378 -0.1513279089 0.3612887003
-0.1172143532 -0.1200217303 0.1632573797
-0.1579338881 0.0161938951 0.1038055753
0.1918194358 -0.308920448 0.02995095297
-0.03308719719 0.0462195803 0.1915385584
-0.04992132371 0.3511525785 -0.1298451315
-0.6532397816 0.09471483641 -0.5056033619
0.2140755854 -0.262695776 0.3560563414
-0.03606993964 0.1906339754 0.05449129191
-0.4284797882 -0.3037999085 -0.2556379515
-0.3017826225 0.2642010278 -0.2185065559
0.3744552968 -0.2078752187 0.1354002632
-0.325215931 -0.2502394504 -0.1944749757
-0.09271105869 -0.04369330097 0.1763051123
0.04456431697 -0.3253906124 0.2498085288
-0.3817217893 -0.1660411347 -0.1532472761
-0.2218026013 -0.2162213838 0.08322973275
-0.3031685268 -0.1854165425 -0.1678138691
0.03593872023 -0.4582996629 0.05038276309
-0.1470036672 0.4487138423 -0.2899997386
-0.2721208668 0.007253996775 0.008554287653
0.2560495799 0.1574535996 0.4129815388
-0.02009370654 0.2314848594 0.01463665054
-0.6021939918 0.01078950398 -0.3237561392
0.03674083142 -0.418164447 0.08396036411
0.2296804924 0.03530543019 0.0304752205
-0.2614958959 0.02822704812 -0.1762600326
0.2130521909 0.1275478476 -0.05788935328
-0.5081599435 0.0238865524 -0.4056282924
-0.3315107083 -0.0492688788 -0.06208677736
0.08167062025 0.1538467345 -0.1337632863
0.002857607469 0.2485577209 0.0216554837
-0.1633790499 -0.05916331055 0.1203065761
-0.3974337744 0.06784525788 -0.1510135681
-0.04918145774 -0.05147776269 0.2162584474
0.4540464862 -0.07383200138 0.2277264034
0.3944567064 0.0732526267 0.07153278031
0.3354072575 -0.003578962204 0.4873399456
0.004429950215 -0.03079622942 0.2565666534
0.0242304892 0.2231366999 0.0803455228
0.2863200079 0.1637622652 0.4477014207
0.1472410239 -0.190844348 0.02760674686
-0.1315282386 -0.09149683269 -0.1154630766
0.4636241774 -0.04612634797 0.3715094814
0.06832740987 -0.6367356651 0.1137067298
-0.2755226055 0.2677538976 -0.2387280285
-0.006282426791 -0.3080872879 0.005810612955
-0.1186474655 -0.6487119552 0.03905567813
-0.03243655421 0.3276426757 -0.2680514687
-0.2369735072 -0.1435891156 -0.1227111122
0.2206918607 0.1552077589 0.3721662399
-0.3860326605 -0.08080613361 -0.1865509212
-0.08603698257 0.2826314768 -0.1259773358
0.07938279324 0.3100667933 -0.06077537895
0.2015420073 -0.3596875883 0.2984267968
-0.09476631936 0.3444500627 -0.3154257345
0.3810814992 0.07674292426 0.4346472097
0.409456656 -0.131457449 0.1737919814
0.453657859 0.219431988 0.3457226086
-0.07285228906 -0.01785683039 0.183745659
-0.003785198428 0.1470116817 0.1410902497
0.01386247139 0.123762987 0.1812090011
-0.3004031011 0.2365427311 -0.3663101629
-0.2336388104 0.1272294311 -0.07719403603
-0.4188100944 0.00278911428 -0.3106623739
0.4878534371 -0.06534008234 0.2737456409
-0.382814976 0.06708593968 -0.138380222
-0.2682859724 -0.09689191398 -0.06947724419
0.1129006503 -0.4795455845 0.04949051538
0.3811859325 -0.1763005116 0.4389256701
0.01084847896 0.02525542597 -0.07813103034
-0.1409327209 0.0936200534 0.05923659156
0.4213721358 -0.1902604892 0.3035633086
-0.5151915177 0.07356484097 -0.3315373024
-0.4679652302 0.0560261105 -0.3346458132
0.1786503433 0.249083391 -0.09441817581
-0.4909549434 -0.2903173987 -0.3280355795
-0.449548405 -0.1871923834 -0.1653528394
0.3255802209 0.01202397785 0.4951988312
0.4021443171 -0.2081191563 0.3596393902
0.3628457968 0.04509222519 0.4544197692
-0.2945642696 -0.1797834165 0.03099406587
-0.3921909776 0.1854398553 -0.3010071792
0.3240969864 0.2238354012 0.4317907964
0.05256839607 0.2841001417 0.01162595976
-0.5756713528 0.05988940156 -0.4691001861
0.2287828597 -0.1899630859 0.047756624
0.2850499228 -0.2305766671 0.0634852397
0.05481876211 0.07818619119 -0.09030170552
0.4646170686 -0.04299703244 0.226377946
0.1354992298 0.2763328267 0.09412211658
0.3418316283 -0.1511614141 0.4678449083
-0.3911985592 0.30376457 -0.3436136498
0.4137265296 0.1131068103 0.4014684399
0.2438808856 -0.0528563874 0.07736654601
0.4601432824 0.1106017497 0.354266244
-0.2703562987 -0.1810231104 -0.1439659082
0.186548721 -0.3465055933 0.03399356655
0.3648053619 0.2671467779 0.4070588353
-0.1975321312 -0.05294874542 0.07873019851
0.1345382736 -0.3400180964 0.3006314847
-0.5208033377 -0.3110627505 -0.3518963302
0.2495945051 -0.4006600313 0.1024385569
-0.1476455956 0.3822217222 -0.3750680389
0.2727066702 0.2755457741 0.0101217709
-0.5855948319 -0.3130145684 -0.2758781505
-0.08176944873 0.2069206287 -0.1416920681
0.1143945 -0.210829505 0.3227405995
-0.4514326973 0.2316715138 -0.3749397182
-0.5078056797 -0.3181996561 -0.3312426475
-0.6451284082 -0.2563188734 -0.4074819404
-0.1996370249 0.2308769231 -0.2094320039
0.2717391949 0.02160105935 0.05387109368
0.05121061852 -0.3106197622 0.2579584619
-0.5185347489 0.3152159398 -0.5728134276
0.01445552124 -0.1160093773 0.2645515083
0.2867710409 -0.1085825474 0.0782373716
0.4309213211 0.1212294825 0.3830988157
-0.2019743225 -0.2936746223 -0.00870849472
0.1016699223 0.2375811668 0.1347682063
0.3623769117 -0.07252487308 0.1212574826
0.3540344586 0.1775595195 0.4550106876
0.4139991105 -0.06740680278 0.4202310956
-0.01272430681 -0.3508357508 0.09838044078
0.4552899276 -0.09452208423 0.3857110852
0.07035594209 0.2025684966 -0.1655015108
0.1008587534 -0.1152622116 0.3315940538
-0.1091342095 -0.1046760256 -0.1005201513
-0.4348962188 0.2900024732 -0.52487064
-0.08395761827 0.3945265945 -0.3409278586
0.3631409322 0.08580429108 0.4521519543
0.4057195833 -0.1516252275 0.1711040148
0.1171326045 -0.3662594417 0.02593798596
-0.1420015592 0.4756865781 -0.3388930616
-0.3440185589 0.2913104122 -0.3919037646
0.407553498 -0.101102068 0.1500772422
0.3232186007 -0.2427767562 0.09868470117
0.1421373014 -0.4379697544 0.05906380063
-0.2276193399 0.008837545798 0.04705629427
0.1353267408 0.1405860499 -0.09826281246
-0.4148021139 0.2642713143 -0.4957415405
-0.2281991514 0.4963979606 -0.5102178359
0.09176918404 -0.6091297254 0.04900375208
-0.5544604187 -0.2562777036 -0.3941161686
-0.2024944619 0.2372002465 -0.1537956604
-0.657252827 -0.3359059575 -0.3800197784
0.09771054451 -0.03365488769 0.3431456086
0.3083509786 0.01328216722 0.06818616359
0.3792700365 -0.2693048487 0.2859273613
-0.4988860203 -0.2126719147 -0.1864462433
-0.2271818107 -0.150184884 0.09594490271
-0.6169536613 -0.04133363024 -0.4094322701
-0.6424481603 -0.3008833914 -0.4525244275
-0.06177942784 -0.5582016504 0.05873786165
-0.03637418657 -0.1751896068 0.2228121239
0.4530786188 -0.03932166038 0.205029028
0.03599990398 -0.6863779314 0.06615840676
-0.09931249495 -0.2955472998 0.08958756922
0.247209964 -0.1562761534 0.0594899073
0.1820809132 0.09601492648 0.374177614
-0.4289831938 -0.04436573177 -0.1401650147
-0.123498362 0.3672022199 -0.1905395497
-0.5911739633 -0.03979227757 -0.3547520826
-0.2427582591 0.228716049 -0.1308171583
0.07672931034 -0.6416099875 0.0751113631
0.1935196933 0.1541798796 -0.08031037433
-0.4457194826 0.07613236135 -0.262142045
-0.5694244297 -0.236986324 -0.3759587056
0.08473332517 -0.0735605302 0.3273756164
-0.1848310581 -0.07989783846 0.1002166678
0.05943469821 -0.3633537685 0.03201579353
-0.0991576667 -0.09438441208 -0.0991431718
-0.3501604819 0.2780013224 -0.4166995439
-0.1095757072 -0.2694795595 -0.03639439816
-0.3434003289 0.06893455586 -0.1150952983
0.1133377865 0.09863269051 -0.07160375184
-0.1909167102 0.4177824588 -0.4644002801
0.3574447514 0.1386384091 0.02402856595
-0.03334182972 0.3300400418 -0.1020769836
0.1034358646 -0.1647617363 0.3242228098
0.4457250899 -0.1433932976 0.2744149109
-0.1065674656 -0.6273014377 0.003218042838
0.0835269768 -0.3582765442 0.2640380409
0.02594576865 0.007708600764 0.2616477373
-0.02103034732 0.01779236573 -0.09702243472
-0.4632972047 0.02030675897 -0.1584066075
0.0240851819 -0.7008928874 0.05207507269
-0.2363446698 -0.2104106793 -0.1274855931
-0.08366896189 0.04179023566 0.1519748464
0.307333212 -0.2424670081 0.376396515
-0.04236572697 -0.2387850366 0.2070548672
-0.3896172816 0.06712223682 -0.1439057804
-0.1568231784 0.180459574 -0.02098290228
-0.3897358396 -0.166456174 -0.1514811374
0.4456033534 0.2312036354 0.3538918164
-0.4615127354 0.3418788561 -0.4700795769
0.511909849 0.00819920374 0.310828861
0.450932963 0.206350187 0.3501267121
-0.07905804993 0.423757414 -0.2630415354
0.02837863277 -0.5552511953 0.1733198441
-0.2283858978 -0.2261850465 0.07647927943
-0.07948170678 0.2170028179 -0.1225693121
-0.326949202 -0.05547487639 -0.06839181393
-0.06398843687 -0.1975910176 -0.04796706358
0.05903757607 -0.3606254144 0.2482083376
-0.5443213332 -0.2745207411 -0.2119193022
-0.4411325873 -0.07200348329 -0.2499216391
0.3889886314 0.1583841732 0.04674964299
0.05380733727 -0.1278162156 0.001675118268
0.4650728753 0.07937063267 0.1504136194
0.2819617775 0.2700329681 0.1914519286
0.3682692062 0.1032276209 0.4466458513
-0.1128471166 -0.2397079836 -0.06307482471
-0.6596174492 -0.007292613192 -0.5139423274
-0.6454937473 0.05269788936 -0.5366602638
-0.001430127755 0.1616177587 -0.1666876042
-0.4145593407 -0.07621822458 -0.2349561037
0.2676907214 -0.361950202 0.08837925982
-0.07800943286 -0.5996805341 -0.003520956229
-0.08002703834 0.001652832679 0.1711381232
-0.04912642909 -0.1656590398 -0.04737855295
-0.3904157258 0.0588155251 -0.2534737187
0.4091360175 -0.1722353816 0.4343753854
0.3243026585 0.2311918168 0.4035478709
-0.4650294098 -0.32448303 -0.2716963886
0.5241364454 0.1347639475 0.2382178081
0.4975770814 0.1673867963 0.2199670798
-0.05449521269 -0.6320036994 0.106107765
-0.1100208669 -0.6625809129 0.0496346916
0.1355907586 -0.1274827208 0.3564427533
0.005857925814 -0.6680432448 -0.0363380094
0.02507936287 -0.5107618021 0.179602136
-0.0863746664 0.1674534055 0.05086962782
-0.5543383202 -0.3030043246 -0.3983224181
-0.02036515793 -0.1538263407 -0.0295496878
0.4029090189 -0.07722428388 0.4322932976
-0.314801684 0.2602003038 -0.3794346755
-0.3219614483 -0.3091060517 -0.08895847596
-0.1903809498 0.03494064835 0.06791824662
0.2931095697 0.190732434 -0.03180313159
0.2143010034 -0.2999758964 0.3335181372
-0.02235630184 -0.08009952712 -0.05503839044
-0.2200986324 -0.1953730544 0.09073339817
0.4266664128 0.2388654507 0.2186971418
-0.4100889679 0.2164719302 -0.3008043642
0.2913374634 -0.008097926027 0.5095627275
-0.2246083002 0.1620918418 -0.07114398493
0.199752161 -0.1078356866 0.05694320956
-0.08541903747 0.2367743208 -0.1293713937
0.2178402414 -0.0006830309224 0.05338722306
-0.6720306878 0.03966772771 -0.5425781532
0.2770963865 -0.3600225411 0.274724103
-0.3314651106 -0.1518011048 -0.04003030401
-0.5344982856 0.06983977615 -0.302006012
-0.440100139 0.235964047 -0.489510705
0.4095964082 -0.08223859603 0.1523368231
-0.6333255644 -0.276682728 -0.450865775
0.4144393029 -0.2231825189 0.23088953
0.02360618396 -0.1824150731 -0.01433526358
0.1811954859 -0.1421108796 0.0452588447
0.0659003172 0.1215663302 0.2380069777
0.09544625445 -0.5806494028 0.1514215773
0.3798081922 0.08159914205 0.05528847009
-0.08540694104 0.1722608674 0.0438158692
-0.555464912 -0.2247443175 -0.331089674
-0.1805472903 -0.03045581022 0.09984695663
-0.1381949068 0.4655423092 -0.4421481922
0.3258069274 -0.3407027471 0.1658765108
-0.4467861667 -0.07011751918 -0.2054041861
-0.2445190019 0.2341758142 -0.1409045737
0.1886576092 0.02865967394 0.4092642856
-0.0674338828 0.1939753588 0.02105543118
0.3806327225 0.2616542511 0.2501364111
0.2282580365 0.227265166 0.2849227198
-0.2102911458 0.1397159967 -0.05493212573
0.04459963429 -0.5222237283 0.191096806
0.138482656 -0.2344612069 0.3343650761
-0.480722114 0.2473204072 -0.5268049016
-0.4281065147 -0.1798416469 -0.1879131516
-0.02584288817 0.1277776877 0.1391377522
-0.5470274211 0.2742157743 -0.5199992494
-0.042477524 -0.1556851756 -0.04567493967
0.1517435419 -0.06910339982 0.3816147451
0.5225613121 -0.006250768047 0.2737987661
-0.3895413687 0.04021900906 -0.2784278315
0.233279597 -0.3904637555 0.08115773688
0.05622751115 -0.2811458185 -0.00221309112
0.1202616832 0.04083091957 -0.0191507075
-0.1017289959 -0.760394045 -0.04498385413
0.5018071551 0.1395013309 0.2086683811
0.2701610642 -0.391682738 0.2385902415
-0.1178261135 -0.7908820289 -0.02503518861
-0.4186289395 -0.0559848442 -0.1464282328
-0.03066383607 0.08023677798 -0.1356464144
-0.3586880162 0.1823097543 -0.2254521484
-0.0144234649 -0.5768008024 -0.007657523428
-0.03731129561 -0.1879747618 -0.03562214091
-0.4297071178 0.2923060675 -0.519919445
-0.01815690084 0.2441414747 -0.0004516373061
-0.3166554213 -0.1648305893 -0.01006359362
0.3974794392 0.03733360213 0.08952644457
-0.5799911936 -0.04253035927 -0.4150788002
0.06209661613 -0.1791524187 0.001851892184
0.5120822114 0.06504805529 0.3054614417
0.4122031289 0.1513007832 0.07007783797
-0.1635720592 0.0573807461 0.06618928651
-0.1536782737 0.3963829815 -0.3994962483
0.266041744 0.1691706234 0.414534515
-0.4208134079 0.3250225445 -0.4867515476
-0.2189890249 0.2163340249 -0.2759790805
-0.1105104903 -0.3060043778 0.06001234736
-0.6738866832 -0.2826978956 -0.4396082623
-0.3332860256 -0.07652935189 -0.1967151675
-0.2291580505 0.07116612127 -0.109814691
0.08061505209 -0.07409569976 0.3242511757
-0.4209168105 -0.05203527534 -0.2785282439
0.4586653318 0.1263488042 0.1242840786
0.3187837012 -0.2505034988 0.09685099578
0.2875178913 -0.01462721088 0.08013907031
0.3937797155 -0.240256807 0.2981321165
0.3034101844 0.202196668 0.4342773937
0.2590393036 0.1329718579 -0.03786059981
-0.254728699 0.04820111866 -0.01703912026
0.1471016885 -0.09378825643 0.04587551931
0.3477895109 -0.1844852784 0.4291067225
0.1374427117 -0.08266167511 0.04254389838
0.197993945 -0.2478395182 0.3632882479
-0.4183527123 -0.07230906496 -0.1745195946
-0.5196901651 0.2792639724 -0.470147408
-0.03695204154 0.3087447239 -0.2615433781
-0.6737351727 -0.2872328876 -0.400359965
-0.1021184338 -0.613166943 0.03145918159
-0.03927812759 0.05715119096 0.1794681052
0.2329452391 -0.324781999 0.3216973916
-0.05172249986 0.3500804925 -0.1284324659
0.02805468626 0.04739097773 0.248290904
-0.1609370141 0.4585441564 -0.4783744691
-0.4271981205 -0.007194814712 -0.1224546179
-0.02865017299 -0.6068276252 0.132783727
-0.5895327832 -0.3545527714 -0.3382758923
0.4537162173 0.2561654809 0.284131509
-0.1009991321 0.07973394876 0.1109186096
0.4915457907 -0.08665704592 0.3502314284
0.01882981803 -0.3953170382 0.1719795983
0.380719124 0.250102751 0.42231852
0.5274331381 -0.03537762675 0.298327605
0.3668109232 -0.007737315984 0.4584530785
-0.243047762 -0.01027862292 0.03189973854
-0.5209896554 -0.3291446236 -0.3356686032
0.05552684456 -0.06654694765 0.3032958379
0.4593672204 0.2563459276 0.2915384466
0.2418931918 0.200587507 0.3419173979
0.04504836828 0.1067847707 -0.1174671746
0.07445729564 -0.3836471867 0.2514891315
0.07409126794 -0.6422433353 0.100682052
-0.209375972 0.4362780102 -0.4884833193
0.1343570775 0.01013559003 0.365099006
0.2085207009 0.1643539153 0.3506267595
-0.472151273 0.2262499937 -0.4373281283
-0.0152928831 -0.6710320299 -0.05050284728
0.2884469213 -0.09077417926 0.08177759
0.08310143121 0.1109156722 -0.09650873558
0.4704173996 0.1810127933 0.1819621045
0.4827494043 -0.1179557371 0.3221974049
-0.004705541032 0.3591871454 -0.2023123323
0.4585402717 -0.09484178438 0.2576324945
-0.1132982988 0.2937838161 -0.1748519051
0.04689194347 -0.005551000716 -0.03583309407
-0.08199906229 0.01635096117 -0.1324618704
-0.1894502188 0.08790009305 -0.1843963879
-0.2574657327 0.2374350851 -0.1489894538
-0.4159230696 0.2806581055 -0.3325645387
0.04470747663 0.3140852351 -0.1527611541
-0.3422017905 -0.1830474218 -0.1853407257
0.2378771984 0.06801642985 0.4421475316
-0.5774656036 -0.04320125935 -0.407948018
-0.1368162571 -0.001250873826 0.1253373568
-0.2160566541 0.1675857306 -0.06617065352
0.3499358364 -0.2206723863 0.3815828598
-0.5612487352 -0.336916294 -0.3728560191
-0.353359857 0.2969773536 -0.3328250602
0.3499115159 0.03047937242 0.06875229855
-0.5167819735 -0.2801464669 -0.1820779814
0.4036688057 -0.04864111377 0.4275227666
0.2466443502 0.2468657899 0.2579367421
0.1722223302 -0.1587731647 0.3753698077
-0.4220565015 0.0731846149 -0.2295815416
-0.04762141179 -0.04266173777 -0.08496318783
0.3016463075 -0.0770652264 0.5005872858
-0.331230565 0.05408984694 -0.08179870068
-0.1318828668 0.3047541441 -0.2568243068
0.03313522021 0.2518726797 0.04820101274
-0.5427069153 -0.05338863137 -0.3530284043
0.412870605 0.2682856346 0.2889318967
-0.0004145714535 0.1638998326 0.127168435
0.2265370153 0.2673986282 0.1741359892
-0.261821992 0.112471121 -0.1477460785
-0.4879507027 -0.210598159 -0.2766768247
0.007371256265 -0.5587712884 0.1593758996
0.01492664311 -0.4957685091 0.04472949943
0.1444159468 0.12237967 0.3181193538
-0.1342429786 -0.7745949296 0.02833613517
-0.08859756777 0.414587431 -0.3524101291
-0.5089198993 0.04336660671 -0.4003204839
-0.1237477483 0.307752199 -0.2680820245
-0.128442883 0.02288388424 0.1252417932
-0.2191058163 -0.08083191679 0.05698575603
-0.4261478954 0.3293428146 -0.4341568458
-0.07933143551 0.2033248515 -0.003766178735
0.1601351613 -0.02109598257 0.03954371995
-0.06225328419 -0.6363239519 0.09809202049
0.48808005 0.1462952525 0.1850885419
-0.1772747016 0.04432721415 -0.169721314
0.07919091962 -0.6261432947 0.0310699181
0.2208338171 -0.4606612663 0.158167379
0.02966643603 0.2862137258 -0.005701604123
-0.06757319008 -0.7148966841 -0.05544032555
0.05098200295 0.198885648 0.1346880509
-0.06464161021 -0.6068813047 -0.01492010996
-0.3001588604 -0.02860796306 -0.2186881523
-0.3052725618 -0.2268674701 -0.1802047688
-0.2283345427 -0.1176391587 0.07224194946
-0.4238548884 0.3014652192 -0.3706911428
-0.4748366887 -0.01031129333 -0.3608286683
0.3245591592 0.07840636983 0.4904713754
